ply
format ascii 1.0
comment Created by Open3D
element vertex 170
property double x
property double y
property double z
end_header
108.221 99.0817 73.7355
49.3072 36.5701 36.6091
113.668 31.9844 50.1463
155.754 73.3292 75.4333
55.0623 -32.8543 12.5199
8.76533 -5.4538 11.3865
-14.9519 -30.7564 -4.36235
156.039 170.179 109.665
11.7347 -165.562 -39.3374
39.4192 -304.811 -75.2293
2.3365 -120.978 -27.8178
-5.86125 -74.8997 -15.6129
137.084 53.5093 64.4928
29.508 -256.878 -62.9362
21.3803 -211.625 -51.1142
207.264 -66.7336 49.4861
200.465 -21.4475 61.7224
191.426 23.0524 73.1119
218.338 -113.81 37.758
165.273 158.818 108.234
29.0625 -343.378 -90.6473
91.2712 64.9752 57.5242
-47.6365 -312.584 -98.8459
11.7129 -327.979 -87.9858
76.5335 -7.80388 27.5157
132.673 108.249 83.3242
8.72222 -333.599 -91.988
186.974 -6.88435 62.8689
-66.0277 -305.581 -100.916
-85.1123 -296.03 -102.704
-25.9692 -312.881 -92.4845
-173.625 -52.6629 -48.0603
-44.8022 -304.903 -94.2734
25.8305 -281.956 -72.0485
17.6075 -236.372 -60.1411
-117.333 -161.621 -68.6441
135.371 208.586 114.722
177.973 40.2889 75.3184
7.83344 -190.566 -48.3224
-7.2161 -319.445 -89.6908
-23.0539 -330.435 -97.0888
-63.4792 -298.198 -96.5311
-82.1823 -290.113 -98.6253
31.4665 0.523465 19.4475
-57.6532 -144.919 -48.8161
73.2841 43.3368 45.8027
73.855 153.459 80.6071
-49.0352 120.773 36.5929
-52.4023 299.713 94.0773
74.5913 247.674 113.079
45.9453 228.31 98.0116
169.032 84.8408 86.6811
-12.33 339.752 118.505
16.2779 137.321 60.073
-69.2975 -190.951 -65.725
-30.1758 175.459 60.1069
94.6774 272.903 125.47
-0.610844 -144.938 -36.2471
7.68553 224.76 86.8532
5.72571 188.581 73.6901
-45.7618 -104.491 -33.9831
56.397 180.066 85.2799
33.3018 111.833 55.5219
-31.7276 128.349 43.6751
-29.9676 -7.92649 -0.290858
73.1786 -176.916 -24.2263
-27.5771 158.903 42.8759
155.819 132.743 59.0033
-36.8197 242.749 123.829
-8.92655 -78.0542 -31.058
-89.2601 266.805 98.2742
-20.1734 -34.952 -27.5295
-4.12113 276.985 103.665
-87.0972 243.421 83.2664
30.2899 -101.519 -45.372
-107.057 15.032 19.5278
-32.5417 -129.926 -58.4663
186.414 -52.956 4.11566
-93.0973 233.231 36.1777
17.4978 245.012 -11.8064
-2.72404 -132.492 -18.4685
121.535 16.0581 -68.3475
-52.8728 -93.2772 147.254
-109.557 103.679 71.7771
-24.7929 299.692 23.256
-2.87791 236.781 73.7794
147.264 35.2728 -94.4616
29.7416 217.087 32.9546
44.4639 190.303 125.27
70.5458 59.5391 43.4966
-49.595 -8.19475 73.8684
-48.2558 -80.2243 34.1669
-127.423 53.7644 80.8028
-10.79 265.897 32.2288
-76.0211 110.463 -8.67415
-125.909 14.097 -23.1157
-99.0175 8.78382 25.5648
-106.851 62.7489 43.2666
-71.5015 -148.976 -106.723
-146.033 -85.5889 -20.8641
-63.5375 -140.894 -111.562
107.407 11.251 -131.686
-28.7619 -126.445 -77.8342
74.6997 105.464 -34.4621
7.49471 239.14 195.181
-9.16697 -91.9549 23.7529
-18.5498 -120.776 17.0544
-75.1264 78.343 84.6587
-109.433 -16.5804 47.003
-73.1308 -150.808 -36.2656
-74.0822 195.002 56.1833
-95.2319 17.5909 -20.8667
-163.691 52.1534 72.6874
-32.0964 -136.972 -109.706
-59.9126 -125.786 -84.1163
-39.2426 30.1807 -78.9869
-44.3422 -63.476 -25.3801
-20.7448 -212.852 -74.3975
-45.0145 -79.9173 -11.177
-28.3838 -158.866 -65.8125
-36.8148 212.271 101.861
-44.9539 -180.213 -51.7908
34.3793 182.513 31.3841
-17.2236 196.513 69.1254
58.8645 76.574 -27.0963
-49.3221 -58.8227 53.6223
-142.503 77.1217 131.553
-105.242 -15.8888 74.4973
-166.669 -23.2526 63.4467
-123.634 -149.42 -113.954
-165.023 2.94184 -12.8135
-165.449 23.8163 -19.0577
-150.26 -111.992 -51.3833
-161.527 -48.2554 -36.99
-48.6369 -159.475 -179.68
-101.989 -193.253 -114.185
-77.8013 -104.429 -95.378
-105.617 -59.184 16.9292
-148.411 33.1478 71.7052
-142.259 -60.3462 6.14448
-173.726 41.9686 38.1847
-60.1394 -110.907 -148.463
-66.9215 -78.2758 -105.921
-119.802 16.3445 -32.005
-159.515 50.721 77.1311
-168.903 19.7113 86.2889
16.1472 160.692 -69.7705
-123.239 33.146 -24.679
-131.198 -50.3687 -67.9593
51.0566 -135.876 -119.419
-98.4231 -6.5346 39.2667
70.2062 115.229 -111.234
-104.825 40.9578 147.908
57.9923 66.7148 -55.5913
28.8676 -8.64508 23.4744
-85.3036 113.54 77.6521
77.2073 105.971 -10.6495
-68.8878 72.2049 138.06
-85.5198 198.306 65.8726
-39.9253 271.951 2.27201
-62.3053 -37.5181 19.7475
-157.834 65.884 71.4553
-3.17162 121.557 -1.67698
276.255 94.4381 -226.661
312.717 80.8142 -237.891
349.844 41.1132 -171.21
334.083 38.019 -243.658
356.472 34.17 -142.8
390.47 16.4452 -26.5194
404.768 23.8407 48.6997
